ply
      format ascii 1.0
      comment Created with the Wolfram Language : www.wolfram.com
      element vertex 27420
      property double x
property double y
property double z
      end_header
-0.034679724694409754	-0.06853374165800022	0.47400000000000003
-0.03385401696359047	-0.06853374165800022	0.47400000000000003
-0.03302830923277119	-0.06853374165800022	0.47400000000000003
-0.032270539479804135	-0.0686783276108652	0.47500000000000003
-0.03144308974955274	-0.0686783276108652	0.47500000000000003
-0.030680093998289363	-0.06882291356373017	0.47600000000000003
-0.029850902268605862	-0.06882291356373017	0.47600000000000003
-0.029021710538922368	-0.06882291356373017	0.47600000000000003
-0.028192518809238867	-0.06882291356373017	0.47600000000000003
-0.027363327079555372	-0.06882291356373017	0.47600000000000003
-0.02653413534987188	-0.06882291356373017	0.47600000000000003
-0.02570494362018838	-0.06882291356373017	0.47600000000000003
-0.024875751890504887	-0.06882291356373017	0.47600000000000003
-0.02404656016082139	-0.06882291356373017	0.47600000000000003
-0.02321736843113789	-0.06882291356373017	0.47600000000000003
-0.022435210686121317	-0.06896749951659516	0.47700000000000004
-0.021604276957005713	-0.06896749951659516	0.47700000000000004
-0.020816893213692813	-0.06911208546946014	0.47800000000000004
-0.0199842174851451	-0.06911208546946014	0.47800000000000004
-0.01915154175659739	-0.06911208546946014	0.47800000000000004
-0.018318866028049677	-0.06911208546946014	0.47800000000000004
-0.017486190299501964	-0.06911208546946014	0.47800000000000004
-0.01665351457095425	-0.06911208546946014	0.47800000000000004
-0.015820838842406537	-0.06911208546946014	0.47800000000000004
-0.014988163113858826	-0.06911208546946014	0.47800000000000004
-0.014155487385311112	-0.06911208546946014	0.47800000000000004
-0.013350683647677131	-0.06925667142232511	0.47900000000000004
-0.012516265919697312	-0.06925667142232511	0.47900000000000004
-0.01168184819171749	-0.06925667142232511	0.47900000000000004
-0.01084743046373767	-0.06925667142232511	0.47900000000000004
-0.010013012735757849	-0.06925667142232511	0.47900000000000004
-0.009178595007778028	-0.06925667142232511	0.47900000000000004
-0.008344177279798207	-0.06925667142232511	0.47900000000000004
-0.0075097595518183865	-0.06925667142232511	0.47900000000000004
-0.0066753418238385655	-0.06925667142232511	0.47900000000000004
-0.005840924095858745	-0.06925667142232511	0.47900000000000004
-0.005131930326990713	-0.07099170285670486	0.491
-0.004276608605825594	-0.07099170285670486	0.491
-0.09275101776316821	-0.07042206904240549	0.493
-0.09189221204313888	-0.07042206904240549	0.493
-0.09103340632310954	-0.07042206904240549	0.493
-0.0901746006030802	-0.07042206904240549	0.493
-0.08877229106023311	-0.06999353718210688	0.49
-0.0879187113385001	-0.06999353718210688	0.49
-0.08670976373261702	-0.06970784927524114	0.488
-0.08585966800974823	-0.06970784927524114	0.488
-0.08448697245724697	-0.06927931741494252	0.485
-0.0836421027326745	-0.06927931741494252	0.485
-0.08279723300810203	-0.06927931741494252	0.485
-0.08060057172421363	-0.06813656578747956	0.47700000000000004
-0.07976963799509801	-0.06813656578747956	0.47700000000000004
-0.07910419421203269	-0.06827940974091243	0.47800000000000004
-0.07827151848348499	-0.06827940974091243	0.47800000000000004
-0.0772768368077512	-0.06813656578747956	0.47700000000000004
-0.07628563913088164	-0.06799372183404669	0.47600000000000003
-0.07545644740119815	-0.06799372183404669	0.47600000000000003
-0.07462725567151465	-0.06799372183404669	0.47600000000000003
-0.07395310189128879	-0.06813656578747956	0.47700000000000004
-0.07296887221214766	-0.06799372183404669	0.47600000000000003
-0.07213968048246418	-0.06799372183404669	0.47600000000000003
-0.07131048875278066	-0.06799372183404669	0.47600000000000003
-0.07018515711963878	-0.06770803392718094	0.47400000000000003
-0.06906679348422533	-0.0674223460203152	0.47200000000000003
-0.06824456975227026	-0.0674223460203152	0.47200000000000003
-0.0674223460203152	-0.0674223460203152	0.47200000000000003
-0.06660012228836014	-0.0674223460203152	0.47200000000000003
-0.06563853860183641	-0.06727950206688232	0.47100000000000003
-0.06468043891417692	-0.06713665811344946	0.47000000000000003
-0.06386169918108607	-0.06713665811344946	0.47000000000000003
-0.06304295944799522	-0.06713665811344946	0.47000000000000003
-0.062224219714904376	-0.06713665811344946	0.47000000000000003
-0.06140547998181353	-0.06713665811344946	0.47000000000000003
-0.06058674024872269	-0.06713665811344946	0.47000000000000003
-0.05976800051563183	-0.06713665811344946	0.47000000000000003
-0.05894926078254099	-0.06713665811344946	0.47000000000000003
-0.058130521049450136	-0.06713665811344946	0.47000000000000003
-0.0573117813163593	-0.06713665811344946	0.47000000000000003
-0.056372843622452984	-0.06699381416001658	0.46900000000000003
-0.05555584588879424	-0.06699381416001658	0.46900000000000003
-0.05473884815513551	-0.06699381416001658	0.46900000000000003
-0.053921850421476764	-0.06699381416001658	0.46900000000000003
-0.052991622724731	-0.06685097020658372	0.468
-0.05217636699050436	-0.06685097020658372	0.468
-0.05136111125627773	-0.06685097020658372	0.468
-0.05065385948684181	-0.06699381416001658	0.46900000000000003
-0.04983686175318307	-0.06699381416001658	0.46900000000000003
-0.04901986401952434	-0.06699381416001658	0.46900000000000003
-0.048305644252359975	-0.06713665811344946	0.47000000000000003
-0.047486904519269124	-0.06713665811344946	0.47000000000000003
-0.04666816478617828	-0.06713665811344946	0.47000000000000003
-0.045849425053087436	-0.06713665811344946	0.47000000000000003
-0.04503068531999659	-0.06713665811344946	0.47000000000000003
-0.04421194558690574	-0.06713665811344946	0.47000000000000003
-0.04339320585381489	-0.06713665811344946	0.47000000000000003
-0.04257446612072405	-0.06713665811344946	0.47000000000000003
-0.041755726387633196	-0.06713665811344946	0.47000000000000003
-0.04093698665454235	-0.06713665811344946	0.47000000000000003
-0.04020360489362481	-0.06727950206688232	0.47100000000000003
-0.03938312316110185	-0.06727950206688232	0.47100000000000003
-0.038644515401887986	-0.0674223460203152	0.47200000000000003
-0.037822291669932916	-0.0674223460203152	0.47200000000000003
-0.03707845791242272	-0.06756518997374807	0.47300000000000003
-0.036254492181035554	-0.06756518997374807	0.47300000000000003
-0.03550543242522903	-0.06770803392718094	0.47400000000000003
-0.034679724694409754	-0.06770803392718094	0.47400000000000003
-0.03385401696359047	-0.06770803392718094	0.47400000000000003
-0.03302830923277119	-0.06770803392718094	0.47400000000000003
-0.032202601501951915	-0.06770803392718094	0.47400000000000003
-0.03144308974955274	-0.06785087788061381	0.47500000000000003
-0.030680093998289363	-0.06799372183404669	0.47600000000000003
-0.029850902268605862	-0.06799372183404669	0.47600000000000003
-0.029021710538922368	-0.06799372183404669	0.47600000000000003
-0.028192518809238867	-0.06799372183404669	0.47600000000000003
-0.027363327079555372	-0.06799372183404669	0.47600000000000003
-0.02653413534987188	-0.06799372183404669	0.47600000000000003
-0.02570494362018838	-0.06799372183404669	0.47600000000000003
-0.024875751890504887	-0.06799372183404669	0.47600000000000003
-0.02404656016082139	-0.06799372183404669	0.47600000000000003
-0.02321736843113789	-0.06799372183404669	0.47600000000000003
-0.022435210686121317	-0.06813656578747956	0.47700000000000004
-0.021604276957005713	-0.06813656578747956	0.47700000000000004
-0.020773343227890106	-0.06813656578747956	0.47700000000000004
-0.019942409498774502	-0.06813656578747956	0.47700000000000004
-0.0191114757696589	-0.06813656578747956	0.47700000000000004
-0.018280542040543295	-0.06813656578747956	0.47700000000000004
-0.017449608311427695	-0.06813656578747956	0.47700000000000004
-0.016618674582312087	-0.06813656578747956	0.47700000000000004
-0.015787740853196484	-0.06813656578747956	0.47700000000000004
-0.014988163113858826	-0.06827940974091243	0.47800000000000004
-0.014155487385311112	-0.06827940974091243	0.47800000000000004
-0.013322811656763401	-0.06827940974091243	0.47800000000000004
-0.012516265919697312	-0.0684222536943453	0.47900000000000004
-0.01168184819171749	-0.0684222536943453	0.47900000000000004
-0.01084743046373767	-0.0684222536943453	0.47900000000000004
-0.010013012735757849	-0.0684222536943453	0.47900000000000004
-0.009178595007778028	-0.0684222536943453	0.47900000000000004
-0.008344177279798207	-0.0684222536943453	0.47900000000000004
-0.0075097595518183865	-0.0684222536943453	0.47900000000000004
-0.0066753418238385655	-0.0684222536943453	0.47900000000000004
-0.005840924095858745	-0.0684222536943453	0.47900000000000004
-0.005006506367878924	-0.0684222536943453	0.47900000000000004
-0.004276608605825594	-0.07013638113553974	0.491
-0.0034212868846604755	-0.07013638113553974	0.491
-0.09275101776316821	-0.06956326332237615	0.493
-0.09151942416466773	-0.06928105941437464	0.491
-0.09066410244350259	-0.06928105941437464	0.491
-0.08962587078196613	-0.06913995746037387	0.49
-0.08859112311929386	-0.06899885550637311	0.489
-0.0875598594554858	-0.06885775355237235	0.488
-0.08670976373261702	-0.06885775355237235	0.488
-0.08550778412446237	-0.06857554964437082	0.486
-0.08466117240045778	-0.06857554964437082	0.486
-0.08346964478889579	-0.06829334573636929	0.484
-0.08262651706375544	-0.06829334573636929	0.484
-0.08060057172421363	-0.06730563205836396	0.47700000000000004
-0.07976963799509801	-0.06730563205836396	0.47700000000000004
-0.07893870426598242	-0.06730563205836396	0.47700000000000004
-0.07810777053686681	-0.06730563205836396	0.47700000000000004
-0.07711483086056514	-0.0671645301043632	0.47600000000000003
-0.07628563913088164	-0.0671645301043632	0.47600000000000003
-0.07545644740119815	-0.0671645301043632	0.47600000000000003
-0.07462725567151465	-0.0671645301043632	0.47600000000000003
-0.07379806394183115	-0.0671645301043632	0.47600000000000003
-0.07296887221214766	-0.0671645301043632	0.47600000000000003
-0.07213968048246418	-0.0671645301043632	0.47600000000000003
-0.07101086485045806	-0.06688232619636167	0.47400000000000003
-0.07018515711963878	-0.06688232619636167	0.47400000000000003
-0.06906679348422533	-0.06660012228836014	0.47200000000000003
-0.06824456975227026	-0.06660012228836014	0.47200000000000003
-0.0674223460203152	-0.06660012228836014	0.47200000000000003
-0.06660012228836014	-0.06660012228836014	0.47200000000000003
-0.06563853860183641	-0.06645902033435938	0.47100000000000003
-0.06468043891417692	-0.06631791838035861	0.47000000000000003
-0.06386169918108607	-0.06631791838035861	0.47000000000000003
-0.06304295944799522	-0.06631791838035861	0.47000000000000003
-0.062224219714904376	-0.06631791838035861	0.47000000000000003
-0.06140547998181353	-0.06631791838035861	0.47000000000000003
-0.06058674024872269	-0.06631791838035861	0.47000000000000003
-0.05976800051563183	-0.06631791838035861	0.47000000000000003
-0.05894926078254099	-0.06631791838035861	0.47000000000000003
-0.058130521049450136	-0.06631791838035861	0.47000000000000003
-0.05718984135611172	-0.06617681642635785	0.46900000000000003
-0.056372843622452984	-0.06617681642635785	0.46900000000000003
-0.05555584588879424	-0.06617681642635785	0.46900000000000003
-0.054622134193184256	-0.0660357144723571	0.468
-0.053806878458957624	-0.0660357144723571	0.468
-0.052991622724731	-0.0660357144723571	0.468
-0.05217636699050436	-0.0660357144723571	0.468
-0.05136111125627773	-0.0660357144723571	0.468
-0.050545855522051104	-0.0660357144723571	0.468
-0.04983686175318307	-0.06617681642635785	0.46900000000000003
-0.04901986401952434	-0.06617681642635785	0.46900000000000003
-0.04820286628586559	-0.06617681642635785	0.46900000000000003
-0.047486904519269124	-0.06631791838035861	0.47000000000000003
-0.04666816478617828	-0.06631791838035861	0.47000000000000003
-0.045849425053087436	-0.06631791838035861	0.47000000000000003
-0.04503068531999659	-0.06631791838035861	0.47000000000000003
-0.04421194558690574	-0.06631791838035861	0.47000000000000003
-0.04339320585381489	-0.06631791838035861	0.47000000000000003
-0.04257446612072405	-0.06631791838035861	0.47000000000000003
-0.041755726387633196	-0.06631791838035861	0.47000000000000003
-0.04093698665454235	-0.06631791838035861	0.47000000000000003
-0.04011824692145151	-0.06631791838035861	0.47000000000000003
-0.03938312316110185	-0.06645902033435938	0.47100000000000003
-0.038644515401887986	-0.06660012228836014	0.47200000000000003
-0.037822291669932916	-0.06660012228836014	0.47200000000000003
-0.03707845791242272	-0.06674122424236091	0.47300000000000003
-0.036254492181035554	-0.06674122424236091	0.47300000000000003
-0.03550543242522903	-0.06688232619636167	0.47400000000000003
-0.034679724694409754	-0.06688232619636167	0.47400000000000003
-0.03385401696359047	-0.06688232619636167	0.47400000000000003
-0.03302830923277119	-0.06688232619636167	0.47400000000000003
-0.032202601501951915	-0.06688232619636167	0.47400000000000003
-0.03144308974955274	-0.06702342815036243	0.47500000000000003
-0.030680093998289363	-0.0671645301043632	0.47600000000000003
-0.029788190289049967	-0.06702342815036243	0.47500000000000003
-0.02896074055879858	-0.06702342815036243	0.47500000000000003
-0.02813329082854719	-0.06702342815036243	0.47500000000000003
-0.027305841098295803	-0.06702342815036243	0.47500000000000003
-0.026478391368044415	-0.06702342815036243	0.47500000000000003
-0.025650941637793027	-0.06702342815036243	0.47500000000000003
-0.024875751890504887	-0.0671645301043632	0.47600000000000003
-0.02404656016082139	-0.0671645301043632	0.47600000000000003
-0.02321736843113789	-0.0671645301043632	0.47600000000000003
-0.022388176701454397	-0.0671645301043632	0.47600000000000003
-0.021558984971770903	-0.0671645301043632	0.47600000000000003
-0.020729793242087402	-0.0671645301043632	0.47600000000000003
-0.019900601512403908	-0.0671645301043632	0.47600000000000003
-0.01907140978272041	-0.0671645301043632	0.47600000000000003
-0.018242218053036916	-0.0671645301043632	0.47600000000000003
-0.017413026323353422	-0.0671645301043632	0.47600000000000003
-0.01658383459366992	-0.0671645301043632	0.47600000000000003
-0.015754642863986427	-0.0671645301043632	0.47600000000000003
-0.014956807124080878	-0.06730563205836396	0.47700000000000004
-0.014125873394965273	-0.06730563205836396	0.47700000000000004
-0.013322811656763401	-0.06744673401236471	0.47800000000000004
-0.01249013592821569	-0.06744673401236471	0.47800000000000004
-0.011657460199667975	-0.06744673401236471	0.47800000000000004
-0.01084743046373767	-0.06758783596636549	0.47900000000000004
-0.010013012735757849	-0.06758783596636549	0.47900000000000004
-0.009178595007778028	-0.06758783596636549	0.47900000000000004
-0.008344177279798207	-0.06758783596636549	0.47900000000000004
-0.0075097595518183865	-0.06758783596636549	0.47900000000000004
-0.0066753418238385655	-0.06758783596636549	0.47900000000000004
-0.005840924095858745	-0.06758783596636549	0.47900000000000004
-0.005006506367878924	-0.06758783596636549	0.47900000000000004
-0.004180798637059644	-0.06772893792036624	0.48
-0.0034212868846604755	-0.06928105941437464	0.491
-0.0025659651634953565	-0.06928105941437464	0.491
-0.09275101776316821	-0.06870445760234681	0.493
-0.09151942416466773	-0.0684257376932095	0.491
-0.09047945050369913	-0.06828637773864085	0.49
-0.08962587078196613	-0.06828637773864085	0.49
-0.08840995517835461	-0.06800765782950353	0.488
-0.0875598594554858	-0.06800765782950353	0.488
-0.08635439584846695	-0.06772893792036623	0.486
-0.08550778412446237	-0.06772893792036623	0.486
-0.08431277251403616	-0.06745021801122893	0.484
-0.08329718684511708	-0.06731085805666026	0.483
-0.08228508517506224	-0.06717149810209161	0.482
-0.08076954566912813	-0.066614058283817	0.47800000000000004
-0.07976963799509801	-0.06647469832924835	0.47700000000000004
-0.07893870426598242	-0.06647469832924835	0.47700000000000004
-0.07810777053686681	-0.06647469832924835	0.47700000000000004
-0.07711483086056514	-0.06633533837467968	0.47600000000000003
-0.07628563913088164	-0.06633533837467968	0.47600000000000003
-0.07545644740119815	-0.06633533837467968	0.47600000000000003
-0.07462725567151465	-0.06633533837467968	0.47600000000000003
-0.07379806394183115	-0.06633533837467968	0.47600000000000003
-0.07296887221214766	-0.06633533837467968	0.47600000000000003
-0.07198812653187076	-0.06619597842011103	0.47500000000000003
-0.07101086485045806	-0.06605661846554238	0.47400000000000003
-0.07018515711963878	-0.06605661846554238	0.47400000000000003
-0.06906679348422533	-0.06577789855640506	0.47200000000000003
-0.06824456975227026	-0.06577789855640506	0.47200000000000003
-0.0674223460203152	-0.06577789855640506	0.47200000000000003
-0.06660012228836014	-0.06577789855640506	0.47200000000000003
-0.06563853860183641	-0.06563853860183641	0.47100000000000003
-0.06468043891417692	-0.06549917864726776	0.47000000000000003
-0.06386169918108607	-0.06549917864726776	0.47000000000000003
-0.06304295944799522	-0.06549917864726776	0.47000000000000003
-0.062224219714904376	-0.06549917864726776	0.47000000000000003
-0.06140547998181353	-0.06549917864726776	0.47000000000000003
-0.06058674024872269	-0.06549917864726776	0.47000000000000003
-0.05976800051563183	-0.06549917864726776	0.47000000000000003
-0.05894926078254099	-0.06549917864726776	0.47000000000000003
-0.058130521049450136	-0.06549917864726776	0.47000000000000003
-0.05718984135611172	-0.0653598186926991	0.46900000000000003
-0.056372843622452984	-0.0653598186926991	0.46900000000000003
-0.05543738992741088	-0.06522045873813045	0.468
-0.054622134193184256	-0.06522045873813045	0.468
-0.053806878458957624	-0.06522045873813045	0.468
-0.052991622724731	-0.06522045873813045	0.468
-0.05217636699050436	-0.06522045873813045	0.468
-0.05136111125627773	-0.06522045873813045	0.468
-0.050545855522051104	-0.06522045873813045	0.468
-0.04983686175318307	-0.0653598186926991	0.46900000000000003
-0.04901986401952434	-0.0653598186926991	0.46900000000000003
-0.04820286628586559	-0.0653598186926991	0.46900000000000003
-0.047486904519269124	-0.06549917864726776	0.47000000000000003
-0.04666816478617828	-0.06549917864726776	0.47000000000000003
-0.045849425053087436	-0.06549917864726776	0.47000000000000003
-0.04503068531999659	-0.06549917864726776	0.47000000000000003
-0.04421194558690574	-0.06549917864726776	0.47000000000000003
-0.04339320585381489	-0.06549917864726776	0.47000000000000003
-0.04257446612072405	-0.06549917864726776	0.47000000000000003
-0.041755726387633196	-0.06549917864726776	0.47000000000000003
-0.04093698665454235	-0.06549917864726776	0.47000000000000003
-0.04011824692145151	-0.06549917864726776	0.47000000000000003
-0.03938312316110185	-0.06563853860183641	0.47100000000000003
-0.038644515401887986	-0.06577789855640506	0.47200000000000003
-0.037822291669932916	-0.06577789855640506	0.47200000000000003
-0.03707845791242272	-0.06591725851097373	0.47300000000000003
-0.036254492181035554	-0.06591725851097373	0.47300000000000003
-0.03550543242522903	-0.06605661846554238	0.47400000000000003
-0.034679724694409754	-0.06605661846554238	0.47400000000000003
-0.03385401696359047	-0.06605661846554238	0.47400000000000003
-0.03302830923277119	-0.06605661846554238	0.47400000000000003
-0.032202601501951915	-0.06605661846554238	0.47400000000000003
-0.03137689377113263	-0.06605661846554238	0.47400000000000003
-0.030551186040313354	-0.06605661846554238	0.47400000000000003
-0.029788190289049967	-0.06619597842011103	0.47500000000000003
-0.02896074055879858	-0.06619597842011103	0.47500000000000003
-0.02813329082854719	-0.06619597842011103	0.47500000000000003
-0.027305841098295803	-0.06619597842011103	0.47500000000000003
-0.026478391368044415	-0.06619597842011103	0.47500000000000003
-0.025650941637793027	-0.06619597842011103	0.47500000000000003
-0.024823491907541642	-0.06619597842011103	0.47500000000000003
-0.02399604217729025	-0.06619597842011103	0.47500000000000003
-0.023168592447038863	-0.06619597842011103	0.47500000000000003
-0.022341142716787474	-0.06619597842011103	0.47500000000000003
-0.02151369298653609	-0.06619597842011103	0.47500000000000003
-0.0206862432562847	-0.06619597842011103	0.47500000000000003
-0.019900601512403908	-0.06633533837467968	0.47600000000000003
-0.01907140978272041	-0.06633533837467968	0.47600000000000003
-0.018242218053036916	-0.06633533837467968	0.47600000000000003
-0.017413026323353422	-0.06633533837467968	0.47600000000000003
-0.01658383459366992	-0.06633533837467968	0.47600000000000003
-0.015754642863986427	-0.06633533837467968	0.47600000000000003
-0.014925451134302931	-0.06633533837467968	0.47600000000000003
-0.014096259404619433	-0.06633533837467968	0.47600000000000003
-0.01326706767493594	-0.06633533837467968	0.47600000000000003
-0.01249013592821569	-0.066614058283817	0.47800000000000004
-0.011657460199667975	-0.066614058283817	0.47800000000000004
-0.010824784471120263	-0.066614058283817	0.47800000000000004
-0.010013012735757849	-0.06675341823838565	0.47900000000000004
-0.009178595007778028	-0.06675341823838565	0.47900000000000004
-0.008344177279798207	-0.06675341823838565	0.47900000000000004
-0.0075097595518183865	-0.06675341823838565	0.47900000000000004
-0.0066753418238385655	-0.06675341823838565	0.47900000000000004
-0.005840924095858745	-0.06675341823838565	0.47900000000000004
-0.005006506367878924	-0.06675341823838565	0.47900000000000004
-0.004180798637059644	-0.0668927781929543	0.48
-0.0033446389096477153	-0.0668927781929543	0.48
-0.0025659651634953565	-0.0684257376932095	0.491
-0.09133303022543215	-0.06743279801690784	0.49
-0.09047945050369913	-0.06743279801690784	0.49
-0.08926005090122341	-0.06715756210663475	0.488
-0.08840995517835461	-0.06715756210663475	0.488
-0.08720100757247153	-0.06688232619636165	0.486
-0.08617671190639191	-0.06674470824122511	0.485
-0.08515590023917652	-0.06660709028608856	0.484
-0.08413857257082533	-0.06646947233095202	0.483
-0.08312472890133837	-0.06633185437581547	0.482
-0.08228508517506224	-0.06633185437581547	0.482
-0.0812764675038716	-0.06619423642067893	0.481
-0.07976963799509801	-0.06564376460013274	0.47700000000000004
-0.07893870426598242	-0.06564376460013274	0.47700000000000004
-0.07810777053686681	-0.06564376460013274	0.47700000000000004
-0.07711483086056514	-0.0655061466449962	0.47600000000000003
-0.07628563913088164	-0.0655061466449962	0.47600000000000003
-0.07545644740119815	-0.0655061466449962	0.47600000000000003
-0.07462725567151465	-0.0655061466449962	0.47600000000000003
-0.07379806394183115	-0.0655061466449962	0.47600000000000003
-0.07281557626212215	-0.06536852868985965	0.47500000000000003
-0.07183657258127735	-0.0652309107347231	0.47400000000000003
-0.07101086485045806	-0.0652309107347231	0.47400000000000003
-0.07018515711963878	-0.0652309107347231	0.47400000000000003
-0.06921312143652242	-0.06509329277958656	0.47300000000000003
-0.06824456975227026	-0.06495567482445001	0.47200000000000003
-0.0674223460203152	-0.06495567482445001	0.47200000000000003
-0.06660012228836014	-0.06495567482445001	0.47200000000000003
-0.06563853860183641	-0.06481805686931347	0.47100000000000003
-0.06481805686931347	-0.06481805686931347	0.47100000000000003
-0.06386169918108607	-0.06468043891417692	0.47000000000000003
-0.06304295944799522	-0.06468043891417692	0.47000000000000003
-0.062224219714904376	-0.06468043891417692	0.47000000000000003
-0.06140547998181353	-0.06468043891417692	0.47000000000000003
-0.06058674024872269	-0.06468043891417692	0.47000000000000003
-0.05976800051563183	-0.06468043891417692	0.47000000000000003
-0.05894926078254099	-0.06468043891417692	0.47000000000000003
-0.05800683908977046	-0.06454282095904038	0.46900000000000003
-0.05718984135611172	-0.06454282095904038	0.46900000000000003
-0.056372843622452984	-0.06454282095904038	0.46900000000000003
-0.05543738992741088	-0.06440520300390382	0.468
-0.054622134193184256	-0.06440520300390382	0.468
-0.053806878458957624	-0.06440520300390382	0.468
-0.052991622724731	-0.06440520300390382	0.468
-0.05217636699050436	-0.06440520300390382	0.468
-0.05136111125627773	-0.06440520300390382	0.468
-0.050545855522051104	-0.06440520300390382	0.468
-0.04983686175318307	-0.06454282095904038	0.46900000000000003
-0.04901986401952434	-0.06454282095904038	0.46900000000000003
-0.04820286628586559	-0.06454282095904038	0.46900000000000003
-0.047385868552206854	-0.06454282095904038	0.46900000000000003
-0.046568870818548116	-0.06454282095904038	0.46900000000000003
-0.04575187308488938	-0.06454282095904038	0.46900000000000003
-0.04493487535123064	-0.06454282095904038	0.46900000000000003
-0.04421194558690574	-0.06468043891417692	0.47000000000000003
-0.04339320585381489	-0.06468043891417692	0.47000000000000003
-0.04257446612072405	-0.06468043891417692	0.47000000000000003
-0.041755726387633196	-0.06468043891417692	0.47000000000000003
-0.04093698665454235	-0.06468043891417692	0.47000000000000003
-0.04011824692145151	-0.06468043891417692	0.47000000000000003
-0.03938312316110185	-0.06481805686931347	0.47100000000000003
-0.038644515401887986	-0.06495567482445001	0.47200000000000003
-0.037822291669932916	-0.06495567482445001	0.47200000000000003
-0.03707845791242272	-0.06509329277958656	0.47300000000000003
-0.03633114015604831	-0.0652309107347231	0.47400000000000003
-0.03550543242522903	-0.0652309107347231	0.47400000000000003
-0.034679724694409754	-0.0652309107347231	0.47400000000000003
-0.03385401696359047	-0.0652309107347231	0.47400000000000003
-0.03302830923277119	-0.0652309107347231	0.47400000000000003
-0.032202601501951915	-0.0652309107347231	0.47400000000000003
-0.03137689377113263	-0.0652309107347231	0.47400000000000003
-0.030551186040313354	-0.0652309107347231	0.47400000000000003
-0.029725478309494072	-0.0652309107347231	0.47400000000000003
-0.028899770578674794	-0.0652309107347231	0.47400000000000003
-0.028074062847855512	-0.0652309107347231	0.47400000000000003
-0.027248355117036233	-0.0652309107347231	0.47400000000000003
-0.026422647386216955	-0.0652309107347231	0.47400000000000003
-0.025596939655397673	-0.0652309107347231	0.47400000000000003
-0.024771231924578394	-0.0652309107347231	0.47400000000000003
-0.023945524193759112	-0.0652309107347231	0.47400000000000003
-0.023119816462939834	-0.0652309107347231	0.47400000000000003
-0.022294108732120555	-0.0652309107347231	0.47400000000000003
-0.021468401001301277	-0.0652309107347231	0.47400000000000003
-0.020642693270481995	-0.0652309107347231	0.47400000000000003
-0.019816985539662713	-0.0652309107347231	0.47400000000000003
-0.019031343795781922	-0.06536852868985965	0.47500000000000003
-0.018203894065530538	-0.06536852868985965	0.47500000000000003
-0.01737644433527915	-0.06536852868985965	0.47500000000000003
-0.016548994605027758	-0.06536852868985965	0.47500000000000003
-0.01572154487477637	-0.06536852868985965	0.47500000000000003
-0.014894095144524984	-0.06536852868985965	0.47500000000000003
-0.014096259404619433	-0.0655061466449962	0.47600000000000003
-0.01326706767493594	-0.0655061466449962	0.47600000000000003
-0.012437875945252443	-0.0655061466449962	0.47600000000000003
-0.01163307220761846	-0.06564376460013274	0.47700000000000004
-0.010824784471120263	-0.06578138255526929	0.47800000000000004
-0.010013012735757849	-0.06591900051040583	0.47900000000000004
-0.009178595007778028	-0.06591900051040583	0.47900000000000004
-0.008344177279798207	-0.06591900051040583	0.47900000000000004
-0.0075097595518183865	-0.06591900051040583	0.47900000000000004
-0.0066753418238385655	-0.06591900051040583	0.47900000000000004
-0.005853118091883502	-0.06605661846554238	0.48
-0.005016958364471573	-0.06605661846554238	0.48
-0.004180798637059644	-0.06605661846554238	0.48
-0.0033446389096477153	-0.06605661846554238	0.48
-0.0025084791822357864	-0.06605661846554238	0.48
-0.0017071594434660215	-0.06743279801690784	0.49
-0.090960242346961	-0.06630746638376596	0.488
-0.0901101466240922	-0.06630746638376596	0.488
-0.08889423102048069	-0.06603571447235708	0.486
-0.08786645135553686	-0.06589983851665264	0.485
-0.08702158163096438	-0.06589983851665264	0.485
-0.08617671190639191	-0.06589983851665264	0.485
-0.08515590023917652	-0.0657639625609482	0.484
-0.08396437262761451	-0.06549221064953933	0.482
-0.08312472890133837	-0.06549221064953933	0.482
-0.08211436923071563	-0.0653563346938349	0.481
-0.0812764675038716	-0.0653563346938349	0.481
-0.0799368699405804	-0.06494870682672158	0.47800000000000004
-0.07910419421203269	-0.06494870682672158	0.47800000000000004
-0.07810777053686681	-0.06481283087101715	0.47700000000000004
-0.07711483086056514	-0.06467695491531271	0.47600000000000003
-0.07628563913088164	-0.06467695491531271	0.47600000000000003
-0.07545644740119815	-0.06467695491531271	0.47600000000000003
-0.07462725567151465	-0.06467695491531271	0.47600000000000003
-0.07379806394183115	-0.06467695491531271	0.47600000000000003
-0.07281557626212215	-0.06454107895960827	0.47500000000000003
-0.07183657258127735	-0.06440520300390383	0.47400000000000003
-0.07101086485045806	-0.06440520300390383	0.47400000000000003
-0.07018515711963878	-0.06440520300390383	0.47400000000000003
-0.06921312143652242	-0.06426932704819939	0.47300000000000003
-0.06824456975227026	-0.06413345109249495	0.47200000000000003
-0.0674223460203152	-0.06413345109249495	0.47200000000000003
-0.06645902033435938	-0.06399757513679051	0.47100000000000003
-0.06563853860183641	-0.06399757513679051	0.47100000000000003
-0.06468043891417692	-0.06386169918108607	0.47000000000000003
-0.06386169918108607	-0.06386169918108607	0.47000000000000003
-0.06304295944799522	-0.06386169918108607	0.47000000000000003
-0.062224219714904376	-0.06386169918108607	0.47000000000000003
-0.06140547998181353	-0.06386169918108607	0.47000000000000003
-0.06058674024872269	-0.06386169918108607	0.47000000000000003
-0.05976800051563183	-0.06386169918108607	0.47000000000000003
-0.05894926078254099	-0.06386169918108607	0.47000000000000003
-0.05800683908977046	-0.06372582322538163	0.46900000000000003
-0.05718984135611172	-0.06372582322538163	0.46900000000000003
-0.056372843622452984	-0.06372582322538163	0.46900000000000003
-0.05543738992741088	-0.06358994726967719	0.468
-0.054622134193184256	-0.06358994726967719	0.468
-0.053806878458957624	-0.06358994726967719	0.468
-0.052991622724731	-0.06358994726967719	0.468
-0.05217636699050436	-0.06358994726967719	0.468
-0.05136111125627773	-0.06358994726967719	0.468
-0.050545855522051104	-0.06358994726967719	0.468
-0.04983686175318307	-0.06372582322538163	0.46900000000000003
-0.04901986401952434	-0.06372582322538163	0.46900000000000003
-0.04820286628586559	-0.06372582322538163	0.46900000000000003
-0.047385868552206854	-0.06372582322538163	0.46900000000000003
-0.046568870818548116	-0.06372582322538163	0.46900000000000003
-0.04575187308488938	-0.06372582322538163	0.46900000000000003
-0.04493487535123064	-0.06372582322538163	0.46900000000000003
-0.044117877617571896	-0.06372582322538163	0.46900000000000003
-0.04339320585381489	-0.06386169918108607	0.47000000000000003
-0.04257446612072405	-0.06386169918108607	0.47000000000000003
-0.041755726387633196	-0.06386169918108607	0.47000000000000003
-0.04093698665454235	-0.06386169918108607	0.47000000000000003
-0.04011824692145151	-0.06386169918108607	0.47000000000000003
-0.03946673913384304	-0.06413345109249495	0.47200000000000003
-0.038644515401887986	-0.06413345109249495	0.47200000000000003
-0.03790242364380989	-0.06426932704819939	0.47300000000000003
-0.03707845791242272	-0.06426932704819939	0.47300000000000003
-0.03633114015604831	-0.06440520300390383	0.47400000000000003
-0.03550543242522903	-0.06440520300390383	0.47400000000000003
-0.034679724694409754	-0.06440520300390383	0.47400000000000003
-0.03385401696359047	-0.06440520300390383	0.47400000000000003
-0.03302830923277119	-0.06440520300390383	0.47400000000000003
-0.032202601501951915	-0.06440520300390383	0.47400000000000003
-0.03137689377113263	-0.06440520300390383	0.47400000000000003
-0.030551186040313354	-0.06440520300390383	0.47400000000000003
-0.029725478309494072	-0.06440520300390383	0.47400000000000003
-0.028899770578674794	-0.06440520300390383	0.47400000000000003
-0.028074062847855512	-0.06440520300390383	0.47400000000000003
-0.027248355117036233	-0.06440520300390383	0.47400000000000003
-0.026422647386216955	-0.06440520300390383	0.47400000000000003
-0.025596939655397673	-0.06440520300390383	0.47400000000000003
-0.024771231924578394	-0.06440520300390383	0.47400000000000003
-0.023945524193759112	-0.06440520300390383	0.47400000000000003
-0.023119816462939834	-0.06440520300390383	0.47400000000000003
-0.022294108732120555	-0.06440520300390383	0.47400000000000003
-0.021468401001301277	-0.06440520300390383	0.47400000000000003
-0.020642693270481995	-0.06440520300390383	0.47400000000000003
-0.019816985539662713	-0.06440520300390383	0.47400000000000003
-0.018991277808843434	-0.06440520300390383	0.47400000000000003
-0.018165570078024156	-0.06440520300390383	0.47400000000000003
-0.017339862347204877	-0.06440520300390383	0.47400000000000003
-0.016514154616385595	-0.06440520300390383	0.47400000000000003
-0.015688446885566316	-0.06440520300390383	0.47400000000000003
-0.014862739154747036	-0.06440520300390383	0.47400000000000003
-0.014037031423927756	-0.06440520300390383	0.47400000000000003
-0.013211323693108477	-0.06440520300390383	0.47400000000000003
-0.012411745953770821	-0.06454107895960827	0.47500000000000003
-0.011608684215568946	-0.06467695491531271	0.47600000000000003
-0.010824784471120263	-0.06494870682672158	0.47800000000000004
-0.00999210874257255	-0.06494870682672158	0.47800000000000004
-0.009178595007778028	-0.06508458278242601	0.47900000000000004
-0.008344177279798207	-0.06508458278242601	0.47900000000000004
-0.0075097595518183865	-0.06508458278242601	0.47900000000000004
-0.0066753418238385655	-0.06508458278242601	0.47900000000000004
-0.005853118091883502	-0.06522045873813045	0.48
-0.005016958364471573	-0.06522045873813045	0.48
-0.004180798637059644	-0.06522045873813045	0.48
-0.0033446389096477153	-0.06522045873813045	0.48
-0.0025084791822357864	-0.06522045873813045	0.48
-0.0017071594434660215	-0.06657921829517484	0.49
-0.0008535797217330107	-0.06657921829517484	0.49
-0.090960242346961	-0.06545737066089716	0.488
-0.0901101466240922	-0.06545737066089716	0.488
-0.08871132108010932	-0.06505496879208017	0.485
-0.08768528341459761	-0.06492083483580784	0.484
-0.08684215568945723	-0.06492083483580784	0.484
-0.08582134402224184	-0.0647867008795355	0.483
-0.08480401635389066	-0.06465256692326317	0.482
-0.08396437262761451	-0.06465256692326317	0.482
-0.08295227095755967	-0.06451843296699085	0.481
-0.08194365328636903	-0.06438429901071852	0.48
-0.08093851961404262	-0.0642501650544462	0.47900000000000004
-0.0799368699405804	-0.06411603109817386	0.47800000000000004
-0.07910419421203269	-0.06411603109817386	0.47800000000000004
-0.07810777053686681	-0.06398189714190153	0.47700000000000004
-0.07711483086056514	-0.0638477631856292	0.47600000000000003
-0.07628563913088164	-0.0638477631856292	0.47600000000000003
-0.07545644740119815	-0.0638477631856292	0.47600000000000003
-0.07447047572262491	-0.06371362922935687	0.47500000000000003
-0.07364302599237353	-0.06371362922935687	0.47500000000000003
-0.07281557626212215	-0.06371362922935687	0.47500000000000003
-0.07183657258127735	-0.06357949527308454	0.47400000000000003
-0.07101086485045806	-0.06357949527308454	0.47400000000000003
-0.07018515711963878	-0.06357949527308454	0.47400000000000003
-0.06921312143652242	-0.06344536131681221	0.47300000000000003
-0.06824456975227026	-0.06331122736053987	0.47200000000000003
-0.0674223460203152	-0.06331122736053987	0.47200000000000003
-0.06645902033435938	-0.06317709340426755	0.47100000000000003
-0.06563853860183641	-0.06317709340426755	0.47100000000000003
-0.06468043891417692	-0.06304295944799522	0.47000000000000003
-0.06386169918108607	-0.06304295944799522	0.47000000000000003
-0.06304295944799522	-0.06304295944799522	0.47000000000000003
-0.062224219714904376	-0.06304295944799522	0.47000000000000003
-0.06140547998181353	-0.06304295944799522	0.47000000000000003
-0.06058674024872269	-0.06304295944799522	0.47000000000000003
-0.05976800051563183	-0.06304295944799522	0.47000000000000003
-0.05894926078254099	-0.06304295944799522	0.47000000000000003
-0.05800683908977046	-0.06290882549172289	0.46900000000000003
-0.05718984135611172	-0.06290882549172289	0.46900000000000003
-0.056372843622452984	-0.06290882549172289	0.46900000000000003
-0.05543738992741088	-0.06277469153545055	0.468
-0.054622134193184256	-0.06277469153545055	0.468
-0.053806878458957624	-0.06277469153545055	0.468
-0.052991622724731	-0.06277469153545055	0.468
-0.05217636699050436	-0.06277469153545055	0.468
-0.05136111125627773	-0.06277469153545055	0.468
-0.050545855522051104	-0.06277469153545055	0.468
-0.04983686175318307	-0.06290882549172289	0.46900000000000003
-0.04901986401952434	-0.06290882549172289	0.46900000000000003
-0.04820286628586559	-0.06290882549172289	0.46900000000000003
-0.047385868552206854	-0.06290882549172289	0.46900000000000003
-0.046568870818548116	-0.06290882549172289	0.46900000000000003
-0.04575187308488938	-0.06290882549172289	0.46900000000000003
-0.04493487535123064	-0.06290882549172289	0.46900000000000003
-0.044117877617571896	-0.06290882549172289	0.46900000000000003
-0.04339320585381489	-0.06304295944799522	0.47000000000000003
-0.04257446612072405	-0.06304295944799522	0.47000000000000003
-0.041755726387633196	-0.06304295944799522	0.47000000000000003
-0.04093698665454235	-0.06304295944799522	0.47000000000000003
-0.04020360489362481	-0.06317709340426755	0.47100000000000003
-0.03946673913384304	-0.06331122736053987	0.47200000000000003
-0.038644515401887986	-0.06331122736053987	0.47200000000000003
-0.03790242364380989	-0.06344536131681221	0.47300000000000003
-0.037156847886867586	-0.06357949527308454	0.47400000000000003
-0.03633114015604831	-0.06357949527308454	0.47400000000000003
-0.03550543242522903	-0.06357949527308454	0.47400000000000003
-0.034679724694409754	-0.06357949527308454	0.47400000000000003
-0.03385401696359047	-0.06357949527308454	0.47400000000000003
-0.03302830923277119	-0.06357949527308454	0.47400000000000003
-0.032202601501951915	-0.06357949527308454	0.47400000000000003
-0.03137689377113263	-0.06357949527308454	0.47400000000000003
-0.030551186040313354	-0.06357949527308454	0.47400000000000003
-0.029725478309494072	-0.06357949527308454	0.47400000000000003
-0.028899770578674794	-0.06357949527308454	0.47400000000000003
-0.028074062847855512	-0.06357949527308454	0.47400000000000003
-0.027248355117036233	-0.06357949527308454	0.47400000000000003
-0.026422647386216955	-0.06357949527308454	0.47400000000000003
-0.025596939655397673	-0.06357949527308454	0.47400000000000003
-0.024771231924578394	-0.06357949527308454	0.47400000000000003
-0.023895006210227977	-0.06344536131681221	0.47300000000000003
-0.023071040478840805	-0.06344536131681221	0.47300000000000003
-0.022247074747453632	-0.06344536131681221	0.47300000000000003
-0.021423109016066463	-0.06344536131681221	0.47300000000000003
-0.020555593298876584	-0.06331122736053987	0.47200000000000003
-0.01973336956692152	-0.06331122736053987	0.47200000000000003
-0.018951211821904946	-0.06344536131681221	0.47300000000000003
-0.018127246090517777	-0.06344536131681221	0.47300000000000003
-0.017303280359130604	-0.06344536131681221	0.47300000000000003
-0.016514154616385595	-0.06357949527308454	0.47400000000000003
-0.015688446885566316	-0.06357949527308454	0.47400000000000003
-0.014862739154747036	-0.06357949527308454	0.47400000000000003
-0.014037031423927756	-0.06357949527308454	0.47400000000000003
-0.013211323693108477	-0.06357949527308454	0.47400000000000003
-0.012385615962289197	-0.06357949527308454	0.47400000000000003
-0.011559908231469917	-0.06357949527308454	0.47400000000000003
-0.010734200500650638	-0.06357949527308454	0.47400000000000003
-0.009908492769831356	-0.06357949527308454	0.47400000000000003
-0.009159433014024838	-0.06411603109817386	0.47800000000000004
-0.008344177279798207	-0.0642501650544462	0.47900000000000004
-0.0075097595518183865	-0.0642501650544462	0.47900000000000004
-0.0066753418238385655	-0.0642501650544462	0.47900000000000004
-0.005840924095858745	-0.0642501650544462	0.47900000000000004
-0.005006506367878924	-0.0642501650544462	0.47900000000000004
-0.004180798637059644	-0.06438429901071852	0.48
-0.0033446389096477153	-0.06438429901071852	0.48
-0.0025084791822357864	-0.06438429901071852	0.48
-0.0016723194548238576	-0.06438429901071852	0.48
-0.0008535797217330107	-0.06572563857344181	0.49
-0.090960242346961	-0.06460727493802837	0.488
-0.08974084274448525	-0.06434249102434793	0.486
-0.08852841113973796	-0.06407770711066747	0.484
-0.08750411547365836	-0.06394531515382726	0.483
-0.08648330380644295	-0.06381292319698703	0.482
-0.08564366008016681	-0.06381292319698703	0.482
-0.08480401635389066	-0.06381292319698703	0.482
-0.0837901726844037	-0.0636805312401468	0.481
-0.08277981301378096	-0.06354813928330659	0.48
-0.08194365328636903	-0.06354813928330659	0.48
-0.08093851961404262	-0.06341574732646638	0.47900000000000004
-0.0799368699405804	-0.06328335536962615	0.47800000000000004
-0.07910419421203269	-0.06328335536962615	0.47800000000000004
-0.07810777053686681	-0.06315096341278593	0.47700000000000004
-0.0772768368077512	-0.06315096341278593	0.47700000000000004
-0.07628563913088164	-0.06301857145594571	0.47600000000000003
-0.07545644740119815	-0.06301857145594571	0.47600000000000003
-0.07447047572262491	-0.06288617949910548	0.47500000000000003
-0.07364302599237353	-0.06288617949910548	0.47500000000000003
-0.07266228031209662	-0.06275378754226527	0.47400000000000003
-0.07183657258127735	-0.06275378754226527	0.47400000000000003
-0.07101086485045806	-0.06275378754226527	0.47400000000000003
-0.07003708716790959	-0.06262139558542504	0.47300000000000003
-0.06906679348422533	-0.06248900362858482	0.47200000000000003
-0.06824456975227026	-0.06248900362858482	0.47200000000000003
-0.0674223460203152	-0.06248900362858482	0.47200000000000003
-0.06660012228836014	-0.06248900362858482	0.47200000000000003
-0.06563853860183641	-0.0623566116717446	0.47100000000000003
-0.06481805686931347	-0.0623566116717446	0.47100000000000003
-0.06386169918108607	-0.062224219714904376	0.47000000000000003
-0.06304295944799522	-0.062224219714904376	0.47000000000000003
-0.062224219714904376	-0.062224219714904376	0.47000000000000003
-0.06140547998181353	-0.062224219714904376	0.47000000000000003
-0.06058674024872269	-0.062224219714904376	0.47000000000000003
-0.05976800051563183	-0.062224219714904376	0.47000000000000003
-0.05894926078254099	-0.062224219714904376	0.47000000000000003
-0.05800683908977046	-0.06209182775806415	0.46900000000000003
-0.05718984135611172	-0.06209182775806415	0.46900000000000003
-0.05625264566163752	-0.06195943580122393	0.468
-0.05543738992741088	-0.06195943580122393	0.468
-0.054622134193184256	-0.06195943580122393	0.468
-0.053806878458957624	-0.06195943580122393	0.468
-0.052991622724731	-0.06195943580122393	0.468
-0.05217636699050436	-0.06195943580122393	0.468
-0.05136111125627773	-0.06195943580122393	0.468
-0.05065385948684181	-0.06209182775806415	0.46900000000000003
-0.04983686175318307	-0.06209182775806415	0.46900000000000003
-0.04901986401952434	-0.06209182775806415	0.46900000000000003
-0.04820286628586559	-0.06209182775806415	0.46900000000000003
-0.047385868552206854	-0.06209182775806415	0.46900000000000003
-0.046568870818548116	-0.06209182775806415	0.46900000000000003
-0.04575187308488938	-0.06209182775806415	0.46900000000000003
-0.04493487535123064	-0.06209182775806415	0.46900000000000003
-0.044117877617571896	-0.06209182775806415	0.46900000000000003
-0.04339320585381489	-0.062224219714904376	0.47000000000000003
-0.04257446612072405	-0.062224219714904376	0.47000000000000003
-0.041755726387633196	-0.062224219714904376	0.47000000000000003
-0.04093698665454235	-0.062224219714904376	0.47000000000000003
-0.04020360489362481	-0.0623566116717446	0.47100000000000003
-0.03946673913384304	-0.06248900362858482	0.47200000000000003
-0.038644515401887986	-0.06248900362858482	0.47200000000000003
-0.03790242364380989	-0.06262139558542504	0.47300000000000003
-0.03707845791242272	-0.06262139558542504	0.47300000000000003
-0.03633114015604831	-0.06275378754226527	0.47400000000000003
-0.03550543242522903	-0.06275378754226527	0.47400000000000003
-0.034679724694409754	-0.06275378754226527	0.47400000000000003
-0.03385401696359047	-0.06275378754226527	0.47400000000000003
-0.03302830923277119	-0.06275378754226527	0.47400000000000003
-0.032202601501951915	-0.06275378754226527	0.47400000000000003
-0.03137689377113263	-0.06275378754226527	0.47400000000000003
-0.030551186040313354	-0.06275378754226527	0.47400000000000003
-0.029725478309494072	-0.06275378754226527	0.47400000000000003
-0.028899770578674794	-0.06275378754226527	0.47400000000000003
-0.028074062847855512	-0.06275378754226527	0.47400000000000003
-0.027248355117036233	-0.06275378754226527	0.47400000000000003
-0.02636690340438949	-0.06262139558542504	0.47300000000000003
-0.025542937673002322	-0.06262139558542504	0.47300000000000003
-0.02471897194161515	-0.06262139558542504	0.47300000000000003
-0.02384448822669684	-0.06248900362858482	0.47200000000000003
-0.023022264494741776	-0.06248900362858482	0.47200000000000003
-0.022200040762786713	-0.06248900362858482	0.47200000000000003
-0.02137781703083165	-0.06248900362858482	0.47200000000000003
-0.020555593298876584	-0.06248900362858482	0.47200000000000003
-0.01973336956692152	-0.06248900362858482	0.47200000000000003
-0.018911145834966458	-0.06248900362858482	0.47200000000000003
-0.018088922103011395	-0.06248900362858482	0.47200000000000003
-0.017303280359130604	-0.06262139558542504	0.47300000000000003
-0.016479314627743432	-0.06262139558542504	0.47300000000000003
-0.01565534889635626	-0.06262139558542504	0.47300000000000003
-0.014831383164969089	-0.06262139558542504	0.47300000000000003
-0.014007417433581916	-0.06262139558542504	0.47300000000000003
-0.013183451702194746	-0.06262139558542504	0.47300000000000003
-0.012385615962289197	-0.06275378754226527	0.47400000000000003
-0.011559908231469917	-0.06275378754226527	0.47400000000000003
-0.010734200500650638	-0.06275378754226527	0.47400000000000003
-0.009908492769831356	-0.06275378754226527	0.47400000000000003
-0.009082785039012078	-0.06275378754226527	0.47400000000000003
-0.008326757285477125	-0.06328335536962615	0.47800000000000004
-0.007494081556929413	-0.06328335536962615	0.47800000000000004
-0.0066753418238385655	-0.06341574732646638	0.47900000000000004
-0.005840924095858745	-0.06341574732646638	0.47900000000000004
-0.005006506367878924	-0.06341574732646638	0.47900000000000004
-0.004180798637059644	-0.06354813928330659	0.48
-0.0033446389096477153	-0.06354813928330659	0.48
-0.0025084791822357864	-0.06354813928330659	0.48
-0.0016723194548238576	-0.06354813928330659	0.48
-0.0008535797217330107	-0.06487205885170881	0.49
0.	-0.06487205885170881	0.49
-0.09143406619249442	-0.06349587930034335	0.486
-0.09040106052925427	-0.06336522934293523	0.485
-0.08937153886487832	-0.06323457938552712	0.484
-0.08852841113973796	-0.06323457938552712	0.484
-0.0873229475327191	-0.0629732794707109	0.482
-0.08648330380644295	-0.0629732794707109	0.482
-0.08564366008016681	-0.0629732794707109	0.482
-0.08462807441124774	-0.06284262951330277	0.481
-0.08361597274119288	-0.06271197955589466	0.48
-0.08277981301378096	-0.06271197955589466	0.48
-0.08177293734202243	-0.06258132959848656	0.47900000000000004
-0.08076954566912813	-0.06245067964107844	0.47800000000000004
-0.0799368699405804	-0.06245067964107844	0.47800000000000004
-0.07910419421203269	-0.06245067964107844	0.47800000000000004
-0.07810777053686681	-0.06232002968367033	0.47700000000000004
-0.0772768368077512	-0.06232002968367033	0.47700000000000004
-0.07628563913088164	-0.06218937972626221	0.47600000000000003
-0.07529792545287631	-0.0620587297688541	0.47500000000000003
-0.07447047572262491	-0.0620587297688541	0.47500000000000003
-0.07364302599237353	-0.0620587297688541	0.47500000000000003
-0.07266228031209662	-0.061928079811445984	0.47400000000000003
-0.07183657258127735	-0.061928079811445984	0.47400000000000003
